6.282531,596.7676,-151.8751,70,91,135
9.631133,596.902,-151.8322,71,95,157
12.97778,597.2279,-151.831,62,98,186
16.32599,597.6256,-151.8454,68,98,175
19.67688,598.0235,-151.8598,76,91,126
23.02995,598.3256,-151.8533,77,88,121
26.38714,598.8674,-151.8989,78,90,129
29.7452,599.1936,-151.8975,78,84,104
33.111,599.8076,-151.9587,78,79,97
36.47742,600.2538,-151.9833,80,82,97
39.85063,600.8202,-152.034,81,84,106
43.21635,601.051,-152.0116,82,85,104
46.59371,601.5457,-152.0465,80,86,103
49.97252,601.9926,-152.071,85,91,110
53.3545,602.4395,-152.0954,82,88,104
56.72629,602.6467,-152.0678,87,95,117
60.08864,602.6859,-152.0038,86,86,96
63.4642,602.9411,-151.9866,86,84,94
66.8223,602.9323,-151.9123,87,85,97
70.17896,602.9235,-151.8379,87,85,95
73.52056,602.7463,-151.7273,89,88,97
76.87138,602.7134,-151.6478,90,89,98
80.21394,602.6082,-151.5527,90,88,98
83.55869,602.5509,-151.4681,90,89,98
86.9112,602.5898,-151.4042,93,91,100
90.23727,602.3882,-151.2886,91,90,98
93.55191,602.1143,-151.1573,94,94,100
96.85966,601.8162,-151.0211,94,93,100
100.1717,601.5901,-150.9003,94,94,100
103.4711,601.2918,-150.7642,96,96,102
106.7377,600.7766,-150.5814,96,95,102
110.1681,601.5128,-150.6678,96,95,102
113.8934,604.2954,-151.1938,97,96,103
117.9762,609.3427,-152.2054,100,98,106
155.8329,781.5124,-188.9015,225,221,217
160.5251,784.31,-189.4098,215,212,206
164.2492,781.2996,-188.6736,223,219,211
168.4468,781.1571,-188.5519,232,229,221
172.7373,781.5447,-188.5438,217,213,205
176.9672,781.5949,-188.4635,227,224,216
181.1497,781.4037,-188.3316,223,220,212
185.3144,781.1401,-188.1843,234,231,225
189.5087,781.0452,-188.0732,226,222,214
193.7252,781.0708,-187.9878,226,223,215
197.8944,780.8792,-187.8561,236,233,225
202.0913,780.8322,-187.7553,220,217,209
206.3767,781.1957,-187.742,224,220,212
210.604,781.2937,-187.6722,231,227,219
214.8306,781.3915,-187.6023,234,231,223
219.0679,781.5377,-187.5428,229,226,218
223.3457,781.853,-187.5192,233,229,223
227.6309,782.1926,-187.5007,223,220,212
231.9118,782.5081,-187.4771,230,227,219
236.2189,782.9205,-187.4741,233,229,221
240.5347,783.357,-187.476,235,232,226
244.821,783.6727,-187.4524,229,226,218
249.1415,784.1095,-187.4543,232,229,221
253.438,784.4496,-187.4357,238,235,227
257.7431,784.8138,-187.4222,224,221,213
262.05,785.1782,-187.4087,218,214,206
266.3378,785.4701,-187.3798,237,233,227
270.6125,785.7135,-187.3406,225,221,213
274.866,785.8843,-187.286,230,226,218
279.1565,786.1762,-187.2571,237,233,225
283.4258,786.3955,-187.2128,232,228,220
287.6725,786.5421,-187.1531,237,233,228
291.9501,786.7855,-187.1138,235,231,225
296.1968,786.9321,-187.0542,231,227,222
300.5155,787.2971,-187.0405,237,233,227
304.8442,787.6862,-187.0319,233,230,222
309.109,787.8814,-186.9824,235,231,224
313.3825,788.1008,-186.938,228,225,219
317.6734,788.3689,-186.9039,238,234,228
321.9739,788.6613,-186.8748,217,213,207
326.2582,788.905,-186.8355,241,237,232
330.49,789.0031,-186.7656,229,225,219
334.8828,789.5385,-186.7875,233,232,225
339.0789,789.5394,-186.6971,231,227,221
343.5317,790.2209,-186.7495,218,214,209
347.597,789.8813,-186.5878,215,214,210
351.3066,788.6419,-186.2377,199,196,190
354.9735,787.329,-185.8726,167,164,154
357.2266,782.5123,-184.7745,130,119,105
358.0332,774.2383,-182.9544,112,105,91
356.9833,761.629,-180.2297,101,96,84
356.1281,749.7936,-177.6694,88,85,77
356.7753,741.8245,-175.9191,137,136,129
358.5487,736.7012,-174.7645,123,122,118
361.084,733.4758,-174.0071,72,72,72
364.061,731.345,-173.4786,56,56,58
367.293,729.847,-173.0825,53,53,54
370.7462,728.8846,-172.7983,55,57,58
374.3631,728.3117,-172.5955,82,81,84
378.1606,728.153,-172.479,50,46,52
381.9437,727.9697,-172.3574,97,99,100
385.7573,727.8595,-172.2511,122,122,122
389.5569,727.7249,-172.1398,124,124,126
393.2151,727.2971,-171.9677,122,120,124
396.9141,726.9669,-171.8159,116,115,118
400.6082,726.6365,-171.6642,114,114,116
404.357,726.4279,-171.5379,112,112,114
408.0661,726.146,-171.3965,112,112,114
411.8314,725.9859,-171.2804,115,114,117
415.5814,725.8013,-171.1593,114,113,116
419.4147,725.7877,-171.0736,113,112,115
423.2588,725.7984,-170.993,114,113,116
427.2782,726.1512,-170.9831,113,112,117
431.2359,726.382,-170.948,107,106,111
435.2586,726.7349,-170.9382,105,106,112
439.2703,727.0635,-170.9232,105,105,109
443.2968,727.4167,-170.9133,108,110,114
447.3384,727.7944,-170.9084,106,108,112
451.4491,728.2946,-170.9287,110,112,116
455.7653,729.162,-171.0246,110,112,118
460.1566,730.1522,-171.1456,111,112,118
464.3091,730.7019,-171.1758,110,111,117
468.5071,731.3253,-171.221,106,107,114
472.6819,731.8998,-171.2562,105,107,111
476.8183,732.4009,-171.2761,105,106,110
481.1288,733.1964,-171.3564,94,98,101
485.3165,733.7714,-171.3914,64,68,71
489.8553,734.9352,-171.547,50,54,56
493.515,734.6033,-171.3958,54,56,57
495.5388,731.5488,-170.6865,149,151,151
499.6643,732.0256,-170.7014,95,97,98
-557.9664,771.1672,-197.6102,208,202,186
-549.5179,765.3694,-196.1965,201,193,177
-549.0749,771.2125,-197.4299,207,198,182
-543.9603,770.2432,-197.1144,204,197,181
-540.2526,771.351,-197.2708,203,196,180
-536.5197,772.4357,-197.4218,206,197,181
-530.7711,770.4851,-196.8841,209,200,185
-526.3766,770.5656,-196.8073,201,192,177
-521.3907,769.735,-196.5241,205,196,181
-516.8824,769.6283,-196.4051,209,200,185
-511.6894,768.4464,-196.0427,191,184,168
-507.5779,768.9471,-196.0614,186,177,162
-502.8603,768.4893,-195.8632,210,203,189
-498.4554,768.5222,-195.7761,207,200,186
-493.5313,767.7131,-195.4988,193,187,171
-489.0475,767.6054,-195.3801,205,198,182
-484.1546,766.819,-195.1083,208,202,186
-479.5251,766.4534,-194.9316,210,203,189
-474.6638,765.6898,-194.6653,210,203,189
-470.1169,765.4408,-194.5152,202,196,180
-465.3135,764.7466,-194.2649,211,202,189
-460.5599,764.1225,-194.0306,203,196,182
-455.6932,763.287,-193.7489,199,193,177
-451.0374,762.8027,-193.5464,207,201,187
-446.3355,762.2243,-193.3229,210,203,189
-441.7594,761.8568,-193.1469,203,196,182
-437.0979,761.3246,-192.9342,206,199,186
-432.5983,761.0739,-192.7847,204,197,183
-428.0775,760.7759,-192.6247,211,204,190
-423.6501,760.642,-192.5016,202,195,182
-419.038,760.156,-192.2997,212,205,191
-414.4947,759.787,-192.1242,209,202,189
-410.0184,759.5352,-191.975,210,203,189
-405.5102,759.2128,-191.8101,215,208,195
-401.079,759.0311,-191.6768,213,206,195
-396.6158,758.7788,-191.5277,221,214,203
-392.2277,758.6673,-191.4102,206,199,188
-387.8076,758.4852,-191.2771,206,201,188
-383.4026,758.3263,-191.1492,207,200,189
-379.001,758.1674,-191.0213,212,204,193
-374.7272,758.2671,-190.9512,201,194,183
-370.3982,758.2491,-190.8549,207,200,189
-366.0489,758.184,-190.7481,208,201,190
-361.7678,758.2601,-190.6728,205,198,184
-357.4876,758.3359,-190.5975,217,212,200
-353.2191,758.4354,-190.5275,183,178,166
-348.9725,758.5819,-190.4679,215,210,198
-344.7366,758.752,-190.4136,208,203,191
-340.4387,758.7807,-190.3279,198,193,181
-336.2341,759.0215,-190.2892,208,203,190
-331.9885,759.168,-190.2297,201,196,184
-327.7431,759.3144,-190.1701,220,215,203
-323.5274,759.5315,-190.1262,208,203,191
-319.2822,759.678,-190.0667,208,203,191
-315.0179,759.7773,-189.9967,207,202,190
-310.7544,759.8765,-189.9267,205,200,188
-306.5009,759.9994,-189.862,196,191,179
-302.3035,760.2638,-189.8285,213,209,197
-298.0411,760.363,-189.7586,200,195,183
-293.8065,760.533,-189.7042,208,204,192
-289.6074,760.7975,-189.6708,195,190,178
-285.3986,761.0385,-189.6321,188,183,171
-281.0768,760.9722,-189.5257,210,207,195
-276.9447,761.4257,-189.5338,202,200,187
-272.6335,761.383,-189.4327,208,205,192
-268.4568,761.7185,-189.4148,198,195,185
-264.0829,761.4865,-189.272,191,188,178
-259.6169,760.9706,-189.0668,214,211,200
-254.8023,759.39,-188.6278,205,202,192
-249.5233,756.3417,-187.8666,203,200,190
-244.9284,755.3036,-187.5476,207,202,192
-177.942,590.2352,-151.0054,34,30,36
-173.5925,587.0057,-150.2256,34,34,38
-170.2894,587.2342,-150.2036,36,35,40
-166.4474,585.5905,-149.7718,37,36,41
-163.2054,586.0084,-149.7915,40,36,42
-160.1902,587.256,-149.9924,41,37,43
-157.3119,589.0497,-150.3125,39,38,43
-154.1637,589.8953,-150.425,40,39,44
-151.1321,591.2156,-150.6411,41,41,45
-147.9669,592.0618,-150.7535,41,41,45
-144.7586,592.766,-150.8347,44,43,48
-141.4453,593.0668,-150.8279,45,44,49
-138.1302,593.3677,-150.8211,43,42,47
-134.7743,593.5024,-150.778,45,44,49
-131.4348,593.7084,-150.7505,44,43,48
-128.009,593.5343,-150.6403,45,44,50
-124.6386,593.5977,-150.5817,45,44,51
-121.2333,593.4947,-150.4871,47,46,53
-117.8253,593.3679,-150.3873,47,48,56
-114.4346,593.3121,-150.303,48,49,58
-111.0648,593.3515,-150.2394,51,52,63
-107.6868,593.3433,-150.1655,52,53,66
-104.3417,593.5016,-150.1277,52,55,67
-100.9745,593.5409,-150.0641,57,61,79
-97.57417,593.3898,-149.9593,71,81,105
-94.16022,593.1432,-149.8339,108,133,175
-90.83047,593.3728,-149.8116,192,233,255
-87.47639,593.4595,-149.7583,185,239,255
-84.13787,593.6415,-149.7258,118,205,255
-80.78062,593.7044,-149.6674,102,194,255
-77.41705,593.7196,-149.5987,92,227,255
-74.07172,593.8539,-149.5558,16,162,255
-70.73296,594.0359,-149.5232,0,123,255
-67.39371,594.2178,-149.4906,2,88,255
-64.05397,594.3998,-149.4579,8,69,242
-60.70789,594.5342,-149.415,7,62,239
-57.37304,594.7639,-149.3926,11,64,240
-54.02383,594.8745,-149.3446,14,70,242
-50.67739,595.0087,-149.3017,25,62,227
-47.32124,595.0477,-149.2382,13,81,254
-43.99382,595.373,-149.2363,23,127,255
-40.6754,595.8179,-149.26,1,123,255
-37.32277,595.9045,-149.2068,1,146,255
-33.98038,596.1107,-149.1793,16,170,255
-30.61165,595.9821,-149.08,80,254,255
-27.29341,596.523,-149.1241,63,239,255
-23.94406,596.6574,-149.0811,5,102,201
-20.59179,596.744,-149.0279,46,125,241
-17.25076,597.022,-149.0157,49,100,220
-13.88872,596.9172,-148.9216,50,80,184
-10.53241,596.8842,-148.8428,46,82,209
-7.187582,597.0904,-148.8152,33,86,225
-3.834318,597.0812,-148.7416,23,114,240
-0.4891343,597.2874,-148.714,71,145,238
2.858017,597.4457,-148.6762,66,88,148
6.199504,597.8915,-148.6996,62,94,194
9.547106,598.1458,-148.6821,48,95,229
12.89568,598.424,-148.6698,40,91,227
16.24482,598.8702,-148.6931,51,92,215
19.59712,599.3403,-148.7215,52,94,212
22.95212,599.6668,-148.7193,50,89,215
26.30977,600.0653,-148.7323,66,100,205
29.66938,600.416,-148.7351,71,101,198
33.03838,601.1265,-148.8143,65,94,190
36.40958,601.6934,-148.8628,76,101,173
39.77867,602.0444,-148.8655,76,101,156
43.15332,602.4915,-148.8885,74,106,188
46.52727,602.8428,-148.8911,74,110,202
49.90991,603.3381,-148.9242,79,110,200
53.28774,603.6655,-148.9217,87,112,195
56.66088,603.8729,-148.8937,89,113,193
60.02747,603.96,-148.8403,86,103,153
63.40618,604.2395,-148.8276,91,105,146
66.76769,604.2546,-148.759,95,96,116
70.12437,604.2214,-148.6802,89,87,99
73.46577,604.0201,-148.566,90,88,98
76.81612,603.9628,-148.4822,89,88,97
80.15582,603.8093,-148.3782,90,89,98
83.51331,603.8721,-148.3198,91,90,100
86.85555,603.7905,-148.2311,90,89,96
90.18796,603.6367,-148.1271,94,93,100
93.49611,603.29,-147.9827,94,92,100
96.81615,603.0876,-147.8688,95,94,101
100.1182,602.7648,-147.7295,94,94,100
103.4187,602.4658,-147.5954,95,94,101
106.6896,601.9738,-147.4209,95,94,101
110.1179,602.6868,-147.4993,95,94,101
113.8474,605.4974,-148.0174,96,95,102
117.9414,610.6241,-149.0204,101,100,107
155.5882,781.835,-184.6336,225,219,216
160.2275,784.3465,-185.0687,220,217,211
163.9955,781.6212,-184.4085,231,227,222
168.1504,781.2606,-184.243,223,219,211
172.4092,781.5034,-184.2037,219,216,208
176.6462,781.6256,-184.1392,227,224,218
180.8228,781.4337,-184.0091,226,222,217
184.9674,781.0967,-183.8488,229,225,219
189.17,781.0735,-183.7542,232,228,223
193.3557,780.978,-183.6443,234,231,225
197.5133,780.7613,-183.5095,238,234,228
201.7191,780.7863,-183.4249,239,236,228
205.9769,781.0532,-183.3907,232,228,221
210.2029,781.1749,-183.3263,233,230,222
214.4339,781.3207,-183.2669,234,231,225
218.6591,781.4424,-183.2025,222,218,210
222.9478,781.8304,-183.1934,232,229,223
227.2268,782.17,-183.1742,231,228,220
231.4832,782.4128,-183.1349,230,226,218
235.7776,782.801,-183.1257,229,225,217
240.0866,783.2376,-183.1266,235,231,223
244.3663,783.5532,-183.1022,234,231,223
248.6736,783.9659,-183.098,226,223,215
252.9632,784.3059,-183.0787,229,225,217
257.2614,784.6703,-183.0644,237,231,224
261.5616,785.0347,-183.05,225,222,214
265.8567,785.3749,-183.0306,243,240,232
270.1104,785.5697,-182.9811,226,223,215
274.3717,785.7887,-182.9366,240,237,229
278.6409,786.032,-182.8972,226,223,215
282.8581,786.1055,-182.8227,232,227,219
287.0973,786.2516,-182.7632,229,225,217
291.3829,786.5435,-182.7338,227,223,217
295.6224,786.6898,-182.6743,238,234,229
299.9016,786.9575,-182.6398,224,221,213
304.2144,787.3224,-182.6252,227,224,218
308.4548,787.4687,-182.5658,235,231,225
312.7537,787.785,-182.5412,226,223,217
317.0369,788.0529,-182.5067,234,231,225
321.3298,788.3451,-182.4771,238,234,229
325.5278,788.3698,-182.3927,225,221,216
329.7331,788.4188,-182.3133,233,230,224
334.1529,789.0517,-182.3534,226,222,217
338.3951,789.1981,-182.2939,218,214,209
342.8308,789.8557,-182.339,231,227,222
346.9256,789.6124,-182.1998,215,211,207
350.6754,788.4925,-181.8815,217,215,214
354.5177,787.6398,-181.618,182,179,171
356.8641,783.0594,-180.5936,132,124,110
357.9044,775.3582,-178.9333,115,109,93
356.9153,762.877,-176.2996,102,97,85
356.0419,750.9755,-173.7867,93,90,82
356.5064,742.556,-171.9859,28,34,41
358.0206,736.8155,-170.7325,48,49,56
360.6661,733.8533,-170.0459,65,64,67
363.5655,731.5485,-169.4937,69,69,71
366.7077,729.8528,-169.0659,82,82,84
370.1663,728.9129,-168.7921,90,90,92
373.7451,728.2654,-168.578,96,95,98
377.5035,728.0328,-168.4481,115,114,117
381.2917,727.8734,-168.3333,98,98,100
385.1106,727.7868,-168.2333,118,118,120
388.8242,727.4805,-168.0888,122,121,124
392.5681,727.2472,-167.9592,121,121,121
396.3078,727.0138,-167.8296,117,117,118
400.032,726.7557,-167.6952,116,116,118
403.7402,726.4731,-167.5558,118,118,120
407.48,726.2637,-167.4314,117,117,119
411.204,726.0297,-167.302,116,116,118
414.9364,725.8199,-167.1777,118,118,120
418.6901,725.659,-167.0632,116,116,118
422.5654,725.7426,-166.9982,111,110,115
426.478,725.8998,-166.948,114,114,118
430.4289,726.1303,-166.9127,116,115,120
434.4061,726.4098,-166.8871,112,114,118
438.3976,726.7138,-166.8665,111,112,116
442.443,727.1159,-166.8656,110,112,116
446.4777,727.4937,-166.8598,111,110,115
450.6079,728.043,-166.8884,110,108,114
454.9577,728.9849,-166.9958,112,113,120
459.3288,729.9513,-167.108,109,110,116
463.5434,730.624,-167.161,111,112,118
467.9153,731.5666,-167.2681,106,106,114
472.1414,732.2398,-167.321,106,107,114
476.1613,732.5449,-167.3,102,105,110
480.4384,733.2921,-167.3675,103,107,113
484.2628,733.2537,-167.2777,90,94,96
488.7066,734.2712,-167.3992,65,67,71
492.2992,733.84,-167.2307,56,57,60
495.0928,732.0824,-166.7971,152,154,151
498.9042,732.0436,-166.7075,98,100,102
-557.8755,772.127,-193.3838,200,191,175
-548.8503,765.4792,-191.8131,198,189,171
-549.3533,772.7092,-193.3243,207,198,181
-543.8421,771.1538,-192.8849,204,196,181
-540.1205,772.2396,-193.0315,204,198,182
-536.2185,773.0685,-193.121,203,195,179
-530.3956,770.9976,-192.568,205,199,183
-525.9282,770.9608,-192.4658,206,199,183
-520.8705,770.0115,-192.1618,211,202,187
-516.3974,769.951,-192.0546,207,200,184
-511.3735,769.0244,-191.756,220,214,198
-507.2357,769.4786,-191.7627,198,190,175
-502.4187,768.8558,-191.5315,206,199,186
-497.9453,768.7712,-191.4193,210,203,187
-493.0118,767.9371,-191.1418,199,193,177
-488.5046,767.7819,-191.0142,209,202,187
-483.6596,767.0642,-190.7628,210,203,189
-479.0211,766.6741,-190.5837,216,209,195
-474.2208,766.0027,-190.3427,212,205,191
-469.5539,765.5419,-190.1483,210,203,189
-464.8386,764.9869,-189.9334,199,192,176
-459.9811,764.1736,-189.6618,209,202,187
-455.1473,763.3834,-189.3956,199,192,177
-450.3904,762.7101,-189.1552,204,197,181
-445.7878,762.2947,-188.9716,196,188,174
-441.1782,761.8556,-188.7829,198,191,177
-436.588,761.4397,-188.5995,211,204,191
-431.9909,761.0001,-188.4109,207,200,186
-427.5407,760.8187,-188.2791,207,200,187
-423.0182,760.4961,-188.1165,211,204,190
-418.5132,760.1967,-187.9591,210,203,189
-414.0132,759.8972,-187.8017,200,193,179
-409.5425,759.6447,-187.6547,198,191,178
-405.0398,759.3212,-187.4922,212,205,191
-400.5782,759.0682,-187.3454,213,206,194
-396.1569,758.8857,-187.2139,214,208,194
-391.7391,758.7029,-187.0825,205,198,185
-387.3599,758.5906,-186.9665,193,187,173
-382.926,758.3605,-186.825,203,196,183
-378.5762,758.295,-186.7194,208,202,190
-374.2288,758.2295,-186.6138,208,203,190
-369.9509,758.3052,-186.539,202,194,183
-365.6407,758.3102,-186.4488,212,204,193
-361.2887,758.2209,-186.3382,219,214,202
-357.0258,758.3199,-186.2686,211,207,195
-352.7528,758.3956,-186.1938,206,202,188
-348.5127,758.5417,-186.1345,194,189,177
-344.2832,758.7115,-186.0802,209,205,193
-340.033,758.8341,-186.0157,211,206,194
-335.8037,759.004,-185.9615,217,212,198
-331.5442,759.1029,-185.8919,207,202,190
-327.3552,759.3672,-185.8581,216,210,198
-323.1259,759.537,-185.8038,198,193,181
-318.8576,759.6122,-185.7292,213,208,196
-314.6095,759.7348,-185.6647,202,197,185
-310.3524,759.8337,-185.5952,210,205,193
-306.1802,760.1453,-185.5715,212,209,196
-301.9421,760.2914,-185.5122,211,208,195
-297.6402,760.2719,-185.4172,207,202,190
-293.4033,760.4181,-185.3578,208,203,191
-289.1933,760.6351,-185.3138,204,200,188
-285.0002,760.8995,-185.28,203,201,188
-280.6681,760.7853,-185.1646,208,205,192
-276.5517,761.2627,-185.1766,197,192,180
-272.2308,761.1721,-185.0664,209,206,193
-268.0614,761.5076,-185.0477,208,205,192
-263.7436,761.4168,-184.9375,202,199,186
-259.3482,761.0891,-184.7766,197,194,184
-254.5153,759.4346,-184.3309,191,186,176
-249.2341,756.3577,-183.5806,207,204,194
-244.6758,755.4124,-183.2879,200,196,186
-238.6887,749.939,-182.0253,199,196,185
-177.9856,591.0727,-147.7692,32,32,36
-173.6646,587.9332,-147.0262,32,32,36
-170.3616,588.1618,-147.0038,37,36,41
-166.4991,586.4443,-146.5656,35,35,39
-163.2844,586.9575,-146.6041,38,37,42
-160.3022,588.3256,-146.8249,39,36,44
-157.4235,590.1216,-147.1368,38,36,44
-154.2873,591.0157,-147.256,38,37,44
-151.2861,592.4567,-147.4915,40,39,44
-148.1134,593.2803,-147.5953,40,40,44
-144.9098,594.009,-147.6788,44,42,48
-141.6125,594.3815,-147.6863,44,43,48
-138.2729,594.5876,-147.6584,41,41,45
-134.9156,594.7224,-147.6154,42,41,48
-131.5419,594.7858,-147.5572,44,42,48
-128.153,594.7778,-147.4838,46,46,50
-124.7549,594.7222,-147.4003,46,45,52
-121.3589,594.6664,-147.3169,46,45,52
-117.9349,594.4678,-147.2033,50,48,56
-114.5434,594.4119,-147.1199,47,48,57
-111.1492,594.3322,-147.0315,48,50,58
-107.7988,594.4666,-146.9886,49,50,61
-104.4033,594.3629,-146.8952,50,52,64
-101.054,594.4973,-146.8522,56,58,74
-97.67928,594.4888,-146.779,60,66,87
-94.31838,594.5517,-146.721,86,103,124
-90.90999,594.3285,-146.6025,163,209,255
-87.55589,594.415,-146.5495,165,234,255
-84.18721,594.4063,-146.4764,128,219,255
-80.84917,594.5883,-146.4436,107,204,255
-77.5248,594.8658,-146.4308,100,215,255
-74.20578,595.191,-146.4281,67,213,255
-70.83877,595.1823,-146.355,0,149,255
-67.51756,595.5077,-146.3523,0,99,255
-64.16702,595.6182,-146.3044,4,134,255
-60.82253,595.7764,-146.2664,0,85,255
-57.48902,596.0303,-146.2486,0,67,247
-54.15164,596.2603,-146.2257,25,66,229
-50.80558,596.4187,-146.1878,38,61,197
-47.44951,596.4814,-146.1298,47,68,191
-44.0942,596.544,-146.0718,8,70,248
-40.76377,596.8698,-146.0689,4,120,255
-37.4065,596.9085,-146.006,0,117,255
-34.05801,597.0429,-145.963,5,147,255
-30.69488,596.986,-145.88,106,255,255
-27.36957,597.4315,-145.9021,55,245,255
-24.02366,597.6139,-145.8692,30,142,251
-20.68458,597.916,-145.8612,33,108,228
-17.34381,598.2181,-145.8533,38,80,191
-13.97809,598.0652,-145.7503,55,80,163
-10.62189,598.0558,-145.6773,46,83,211
-7.27598,598.2623,-145.6494,40,89,223
-3.919885,598.2049,-145.5665,32,108,239
-0.5775467,598.5311,-145.5634,46,104,220
2.768589,598.7855,-145.5455,38,94,233
6.112976,599.1839,-145.5574,35,94,239
9.4619,599.4623,-145.5443,30,101,250
12.81101,599.8609,-145.5562,30,100,249
16.16372,600.0914,-145.5331,34,96,243
19.51733,600.5142,-145.5499,35,95,237
22.87306,600.769,-145.5317,38,100,244
26.23235,601.2639,-145.5634,39,104,249
29.5935,601.639,-145.5701,42,104,248
32.96138,602.2303,-145.6216,45,104,244
36.33207,602.7497,-145.6581,52,106,242
39.70089,603.0771,-145.6547,64,111,230
43.0725,603.4285,-145.6563,70,110,221
46.45015,603.8762,-145.6777,76,110,203
49.83638,604.4442,-145.724,82,108,186
53.20888,604.6516,-145.6957,85,107,184
56.58611,604.9313,-145.6823,87,108,182
59.94886,604.9463,-145.6142,88,102,147
63.32766,605.2259,-145.6008,86,90,114
66.69269,605.2891,-145.5426,86,87,98
70.04794,605.2317,-145.4598,88,86,96
73.39737,605.1262,-145.367,89,88,97
76.74847,605.0685,-145.2841,88,86,96
80.09545,604.9868,-145.1964,89,88,97
83.44257,604.9293,-145.1136,91,90,100
86.80468,605.0402,-145.0655,90,90,99
90.13349,604.8377,-144.953,90,89,96
93.44557,604.5145,-144.8159,94,93,100
96.77255,604.36,-144.7134,95,94,101
100.0908,604.1572,-144.6011,94,92,100
103.3966,603.8817,-144.474,94,94,100
106.6573,603.2924,-144.2827,95,94,102
110.0971,604.0788,-144.3731,96,96,102
113.8183,606.8209,-144.8635,98,97,104
117.903,611.8823,-145.8275,100,99,106
155.3514,782.2032,-180.3842,224,219,215
159.9262,784.3555,-180.7341,216,212,204
163.6885,781.6257,-180.0879,223,220,212
167.8544,781.3608,-179.9448,231,227,221
172.1075,781.6036,-179.9052,227,223,215
176.3345,781.7013,-179.836,236,233,226
180.5054,781.5085,-179.7078,225,221,213
184.6397,781.1464,-179.5451,226,223,215
188.8219,781.0503,-179.4367,232,228,222
192.9965,780.9298,-179.3234,235,232,225
197.1579,780.7607,-179.2002,227,224,218
201.3577,780.7853,-179.1165,230,227,220
205.6094,781.0521,-179.0819,222,219,211
209.8348,781.1978,-179.0227,235,232,226
214.0543,781.3191,-178.9586,234,230,222
218.2734,781.4405,-178.8945,229,225,217
222.5444,781.78,-178.8746,226,223,215
226.7932,782.0226,-178.8351,228,224,216
231.0732,782.3864,-178.82,228,224,219
235.3675,782.799,-178.8148,229,225,219
239.6515,783.1629,-178.7997,239,235,227
243.944,783.5513,-178.7895,231,227,220
248.219,783.867,-178.7645,226,223,215
252.5154,784.2556,-178.7543,231,228,220
256.7937,784.5714,-178.7293,238,235,227
261.0873,784.9359,-178.7141,230,227,219
265.3758,785.276,-178.6939,236,232,224
269.6373,785.5192,-178.6542,224,221,215
273.885,785.7137,-178.6048,235,232,224
278.1255,785.8839,-178.5504,236,233,227
282.351,786.0056,-178.4862,241,237,232
286.5684,786.1028,-178.4171,235,232,225
290.8394,786.3703,-178.3823,232,229,221
295.0719,786.5162,-178.323,236,232,224
299.3282,786.7351,-178.2784,229,225,219
303.6095,787.0271,-178.2484,228,224,217
307.8753,787.2703,-178.2086,234,231,225
312.1419,787.5136,-178.1688,226,222,217
316.4603,787.9031,-178.1583,237,233,227
320.7032,788.0734,-178.1039,232,228,222
324.9549,788.2681,-178.0543,227,224,218
329.136,788.2679,-177.9658,230,227,221
333.522,788.8281,-177.9893,232,228,222
337.757,788.9741,-177.93,226,223,217
342.2133,789.7051,-177.9874,222,220,214
346.348,789.5831,-177.8746,225,221,216
350.2337,788.8268,-177.6354,221,220,216
354.0239,787.8507,-177.3526,193,190,183
356.5794,783.8,-176.4579,138,133,120
357.9329,776.8683,-174.9906,122,114,100
357.1658,764.9061,-172.5241,105,98,86
356.006,752.2798,-169.9282,96,92,87
356.248,743.3109,-168.0616,36,42,50
357.7196,737.4642,-166.817,44,50,57
360.0604,733.7891,-166.0048,91,90,93
362.9437,731.4561,-165.4596,88,88,88
366.1974,730.0263,-165.094,96,96,98
369.6405,729.0602,-164.8206,90,91,92
373.2364,728.4603,-164.62,89,91,93
377.0235,728.3002,-164.5067,113,114,116
380.774,728.0668,-164.3789,90,90,94
384.5883,727.9798,-164.2801,111,111,113
388.3088,727.6971,-164.1427,113,113,115
392.025,727.4141,-164.0054,109,112,112
395.7602,727.18,-163.8777,107,106,109
399.4443,726.8477,-163.7308,106,105,108
403.2069,726.6867,-163.6178,106,106,110
406.9063,726.4031,-163.4807,105,105,108
410.6254,726.1683,-163.3532,104,104,107
414.3041,725.8599,-163.2114,106,106,109
418.0771,725.7473,-163.1082,110,108,114
421.8973,725.7325,-163.0243,103,104,108
425.817,725.9139,-162.979,107,108,113
429.6986,726.0218,-162.9193,113,115,119
433.6569,726.2767,-162.8884,112,114,118
437.6422,726.5807,-162.8672,113,112,117
441.6421,726.9094,-162.8508,111,112,116
445.6833,727.3116,-162.8488,111,112,116
449.7671,727.7877,-162.8612,112,114,118
454.1369,728.7794,-162.9745,112,112,119
458.4334,729.6241,-163.0589,112,112,119
462.6819,730.3708,-163.124,107,108,115
467.116,731.437,-163.2515,106,107,114
471.294,732.0369,-163.2876,104,104,110
475.4481,732.5878,-163.314,106,108,114
479.7624,733.4092,-163.3932,101,104,108
483.6679,733.518,-163.3331,106,108,112
487.9484,734.266,-163.3978,94,98,101
491.6375,734.0059,-163.2658,68,69,74
494.6469,732.6143,-162.9133,160,162,161
499.4625,734.248,-163.1505,118,119,121
-558.2212,773.7175,-189.2971,184,176,158
-548.5193,766.0769,-187.5474,193,185,168
-548.7559,772.9194,-188.9373,190,181,166
-543.5184,771.7593,-188.5927,207,198,183
-539.6905,772.6823,-188.6994,207,201,183
-535.6837,773.348,-188.7502,198,191,175
-529.8346,771.2267,-188.1983,214,208,190
-525.2805,771.049,-188.0668,217,208,193
-520.2136,770.0743,-187.7635,212,205,189
-515.8218,770.1304,-187.6828,205,198,182
-510.8331,769.2489,-187.3998,213,206,193
-506.582,769.5157,-187.3648,212,203,188
-501.7564,768.868,-187.1326,186,177,161
-497.2746,768.7594,-187.0167,216,210,194
-492.304,767.853,-186.7291,229,223,207
-487.9184,767.8848,-186.6437,210,201,188
-482.9653,766.9778,-186.3563,205,196,181
-478.2912,766.5163,-186.1649,196,187,174
-473.5119,765.8667,-185.9333,204,195,182
-468.949,765.569,-185.7775,219,212,198
-464.1024,764.7779,-185.5158,213,207,191
-459.3476,764.1273,-185.2845,207,200,186
-454.5068,763.312,-185.0181,207,201,185
-449.85,762.8016,-184.8172,194,187,171
-445.2267,762.3381,-184.6266,228,221,208
-440.5706,761.8038,-184.4208,195,189,175
-435.9999,761.4103,-184.2454,200,193,180
-431.4478,761.04,-184.0751,216,209,195
-426.9781,760.8109,-183.9351,200,193,180
-422.3986,760.3696,-183.7498,207,200,187
-417.9882,760.2342,-183.63,206,199,186
-413.4321,759.816,-183.4499,196,189,173
-408.9558,759.5389,-183.3,207,200,187
-404.472,759.238,-183.1452,193,186,172
-400.0171,758.9841,-183.0005,221,214,201
-395.5665,758.73,-182.8558,204,197,183
-391.1558,758.5464,-182.7262,207,200,187
-386.7486,758.3629,-182.5967,219,212,199
-382.3336,758.1554,-182.4622,207,200,187
-378.0024,758.1129,-182.3629,215,207,196
-373.6735,758.0703,-182.2635,211,207,195
-369.3803,758.0985,-182.1793,219,213,202
-365.0553,758.0556,-182.08,220,213,202
-360.7545,758.0601,-181.9908,209,202,188
-356.4877,758.1351,-181.9166,207,202,190
-352.2219,758.2103,-181.8424,197,192,180
-347.9678,758.309,-181.7733,205,200,188
-343.7457,758.4785,-181.7191,213,209,197
-339.503,758.6006,-181.655,217,212,200
-335.2914,758.7938,-181.6059,188,183,171
-331.0795,758.987,-181.5567,207,202,190
-326.8773,759.2037,-181.5125,204,199,187
-322.6353,759.326,-181.4483,191,186,174
-318.3452,759.3299,-181.3593,197,192,180
-314.1432,759.5467,-181.3151,213,208,196
-309.9027,759.6689,-181.251,201,196,182
-305.6908,759.862,-181.2018,199,194,182
-301.4602,760.0078,-181.1427,202,197,185
-297.2115,760.1062,-181.0736,213,208,196
-292.9998,760.2993,-181.0244,209,206,193
-288.7877,760.4925,-180.9753,196,191,179
-284.6191,760.8041,-180.951,185,180,168
-280.2677,760.6182,-180.8222,203,198,186
-276.0902,760.9061,-180.793,206,203,190
-271.8025,760.8859,-180.699,205,202,192
-267.6904,761.3636,-180.7095,196,194,181
-263.3632,761.2247,-180.5908,209,206,195
-258.9669,760.8723,-180.4274,198,196,185
-254.2043,759.4047,-180.0305,203,200,190
-248.9524,756.3939,-179.3111,207,202,192
-244.5302,755.8502,-179.1084,198,192,183
-238.6293,750.6295,-177.9281,212,209,201
-178.0149,591.8623,-144.5242,37,36,41
-173.7156,588.7894,-143.8122,37,36,41
-170.4546,589.1606,-143.819,39,38,45
-166.6326,587.5831,-143.4197,34,34,38
-163.4035,588.0494,-143.4464,37,36,41
-160.4274,589.4431,-143.6661,38,36,44
-157.5673,591.3129,-143.9846,37,36,43
-154.4554,592.3034,-144.1199,36,34,42
-151.4216,593.6273,-144.3243,39,38,45
-148.2418,594.428,-144.4197,38,38,42
-145.0373,595.1578,-144.5003,40,39,44
-141.7391,595.5306,-144.5066,40,39,44
-138.4041,595.7606,-144.4833,37,36,41
-135.0346,595.8478,-144.4304,40,38,46
-131.6655,595.9351,-144.3774,44,43,48
-128.2542,595.8315,-144.285,44,44,48
-124.8766,595.871,-144.2222,47,46,53
-121.4846,595.8389,-144.1447,46,45,52
-118.0794,595.7351,-144.0523,50,48,56
-114.6815,595.6552,-143.9649,45,46,52
-111.2953,595.6229,-143.8875,48,49,58
-107.9015,595.5427,-143.8001,52,52,63
-104.528,595.558,-143.7325,50,51,62
-101.1688,595.6447,-143.6797,48,51,62
-97.81853,595.7792,-143.6367,56,62,79
-94.40625,595.5556,-143.52,60,70,90
-91.04983,595.6423,-143.4672,62,81,104
-87.6861,595.6812,-143.4046,134,180,243
-84.32339,595.72,-143.342,160,238,255
-80.94696,595.6632,-143.2597,131,233,255
-77.62552,595.9648,-143.2512,127,241,255
-74.3058,596.2905,-143.2476,61,212,255
-70.9578,596.4249,-143.2046,22,174,255
-67.62881,596.7028,-143.1911,0,143,255
-64.26485,596.7177,-143.1236,0,139,255
-60.91964,596.8759,-143.0856,0,120,255
-57.60226,597.2736,-143.0966,0,84,255
-54.25536,597.4319,-143.0585,18,64,238
-50.91592,597.6622,-143.0351,42,66,197
-47.58768,598.0122,-143.0362,38,70,204
-44.2225,598.0031,-142.9639,0,97,255
-40.85876,597.9938,-142.8915,1,112,255
-37.49854,598.0085,-142.8241,24,179,255
-34.14149,598.0471,-142.7616,42,205,255
-30.77992,598.0138,-142.6844,95,255,255
-27.45088,598.4119,-142.6952,15,212,255
-24.10644,598.6184,-142.6669,23,133,253
-20.75686,598.7529,-142.624,26,123,245
-17.42345,599.1752,-142.6396,35,128,245
-14.06751,599.2137,-142.5771,43,75,199
-10.71585,599.3242,-142.5293,41,79,209
-7.36836,599.5307,-142.5009,28,94,244
-4.01842,599.6892,-142.4628,28,106,246
-0.6719548,599.9678,-142.4491,28,100,253
2.67474,600.2946,-142.4451,26,99,254
6.020893,600.7415,-142.4654,28,102,253
9.370955,601.1404,-142.476,30,102,251
12.72368,601.5395,-142.4865,28,100,249
16.07962,601.8425,-142.4775,34,106,252
19.4372,602.2657,-142.4928,39,112,255
22.79758,602.6651,-142.5033,35,105,250
26.16087,603.0887,-142.5185,38,105,251
29.52672,603.4883,-142.5289,44,110,254
32.89904,604.0804,-142.5781,46,110,252
36.26882,604.384,-142.5689,46,108,249
39.64103,604.7118,-142.5646,55,109,239
43.01349,604.9914,-142.5505,71,106,213
46.38838,605.2952,-142.5413,83,102,168
49.77037,605.7194,-142.5563,86,101,160
53.14565,605.951,-142.5325,85,98,144
56.51529,606.0624,-142.4844,85,94,127
59.88034,606.1013,-142.4218,88,92,122
63.25853,606.3571,-142.4028,84,85,103
66.62949,606.4924,-142.3595,86,86,96
69.97874,606.3384,-142.2582,86,84,94
73.327,606.2084,-142.1617,88,87,96
76.67462,606.1024,-142.0701,88,86,96
80.02852,606.0928,-141.9979,89,88,97
83.38557,606.1313,-141.9354,89,88,97
86.74163,606.1699,-141.8729,90,89,96
90.07896,606.0394,-141.7765,93,91,99
93.40031,605.7881,-141.6561,94,92,100
96.72334,605.5849,-141.5453,94,93,100
100.0371,605.3333,-141.425,94,92,100
103.3501,605.1057,-141.3095,95,94,101
106.6311,604.6605,-141.1506,96,94,102
110.0631,605.3752,-141.2234,95,94,101
113.7891,608.1454,-141.706,98,97,104
117.8891,613.3107,-142.6655,100,98,106
155.0877,782.3997,-176.1092,226,220,216
159.6172,784.3127,-176.4014,222,218,212
163.4065,781.7722,-175.8078,223,220,214
167.5332,781.3126,-175.6284,229,225,219
171.78,781.5552,-175.5885,231,230,221
175.9962,781.6284,-175.515,222,221,213
180.1607,781.4349,-175.3886,218,214,206
184.298,781.1203,-175.2382,234,231,223
188.4692,780.9991,-175.1263,223,220,212
192.6623,780.9993,-175.0384,212,209,201
196.8029,780.7568,-174.9026,221,218,210
201.007,780.8293,-174.8292,227,224,218
205.2209,780.9504,-174.7654,241,239,233
209.4397,781.0959,-174.7065,238,235,227
213.6471,781.1926,-174.6379,241,238,230
217.888,781.435,-174.5981,249,246,238
222.1296,781.6774,-174.5583,241,238,230
226.3898,781.9927,-174.5329,233,230,222
230.6453,782.2838,-174.5026,224,221,213
234.9268,782.672,-174.4915,222,218,210
239.2041,783.036,-174.4755,230,226,221
243.49,783.4245,-174.4644,226,223,215
247.7713,783.7887,-174.4484,224,221,213
252.0546,784.153,-174.4324,222,218,210
256.3128,784.4201,-174.3972,228,225,217
260.5856,784.7359,-174.3716,234,231,223
264.86,785.0518,-174.346,237,234,226
269.1287,785.3433,-174.3156,234,231,223
273.3549,785.4889,-174.2565,219,216,208
277.6031,785.7076,-174.2117,220,217,209
281.8141,785.8045,-174.1431,232,228,223
286.0168,785.8771,-174.0697,223,219,211
290.2962,786.1931,-174.0441,234,230,223
294.5218,786.3387,-173.985,226,223,217
298.7552,786.5087,-173.9307,237,233,227
303.0211,786.7761,-173.8954,231,227,222
307.2797,787.0192,-173.8554,234,231,223
311.5809,787.3843,-173.8392,233,230,224
315.8755,787.725,-173.8182,223,219,214
320.0771,787.7974,-173.7448,226,223,217
324.2865,787.8943,-173.6762,228,224,217
328.4862,787.9668,-173.6029,225,221,216
332.8915,788.6004,-173.6388,224,223,217
337.0921,788.6729,-173.5655,227,224,218
341.5222,789.3557,-173.6108,230,226,220
345.6773,789.306,-173.5137,218,214,211
349.6977,788.9145,-173.3503,216,214,210
353.5974,788.2296,-173.1299,209,204,204
356.3143,784.5881,-172.336,170,164,158
358.0695,778.6481,-171.097,122,115,102
357.4361,766.9865,-168.75,110,102,88
356.3628,754.5378,-166.2529,96,93,85
356.3261,744.8716,-164.2973,52,58,64
357.4085,738.087,-162.9014,36,44,53
359.8723,734.6998,-162.1642,105,106,103
362.7232,732.2899,-161.6167,107,107,107
365.8476,730.5641,-161.202,95,94,97
369.2878,729.5963,-160.934,86,88,90
372.8481,728.9219,-160.7229,90,91,95
376.4995,728.4674,-160.5544,108,111,112
380.3122,728.3801,-160.4569,82,81,86
384.0886,728.2191,-160.3452,104,106,107
387.7822,727.8865,-160.2005,108,106,110
391.4592,727.5294,-160.0511,104,105,109
395.1777,727.2699,-159.9207,108,108,110
398.8922,727.0103,-159.7904,104,106,107
402.6263,726.7996,-159.6695,103,105,106
406.2726,726.417,-159.5157,105,105,109
409.9864,726.1815,-159.3901,103,102,107
413.6228,725.7985,-159.2365,107,106,111
417.3652,725.6362,-159.1252,106,108,112
421.167,725.5966,-159.0375,109,108,113
425.0426,725.7041,-158.9781,110,111,115
428.9559,725.8852,-158.9327,110,111,115
432.9466,726.2137,-158.9156,112,113,117
436.9261,726.5178,-158.8938,111,110,115
440.9594,726.9201,-158.8907,112,113,117
444.9687,727.2734,-158.8782,112,114,118
448.9666,727.6022,-158.861,112,114,118
453.2356,728.4227,-158.9376,112,113,120
457.416,729.0714,-158.9813,111,112,118
461.6698,729.8431,-159.0484,106,107,114
466.1512,731.0089,-159.1904,106,107,114
470.3632,731.6828,-159.2386,110,111,117
474.2708,731.8156,-159.1836,110,111,117
478.6607,732.7852,-159.2879,107,109,115
482.529,732.8444,-159.2188,104,106,110
487.0605,734.0361,-159.365,107,109,113
490.4809,733.3319,-159.1509,103,106,110
493.0997,731.2973,-158.6842,92,96,97
498.599,734.0906,-159.1343,131,130,133
-557.9039,774.3484,-185.0038,193,187,171
-548.397,766.9774,-183.3525,204,197,181
-549.2094,774.6735,-184.8875,202,196,180
-543.4791,772.7847,-184.3961,205,199,180
-539.6524,773.7088,-184.499,213,205,187
-535.4288,774.0469,-184.478,209,200,183
-529.5977,771.9456,-183.9426,201,192,175
-524.939,771.603,-183.7783,201,195,179
-519.7843,770.4857,-183.451,200,194,178
-515.3817,770.5179,-183.366,206,199,183
-510.3522,769.5641,-183.0735,202,193,178
-506.0912,769.8075,-183.0331,200,193,177
-501.226,769.0879,-182.7902,207,200,186
-496.7495,768.9786,-182.6758,207,200,184
-491.9287,768.3055,-182.443,203,197,181
-487.3893,768.0784,-182.304,216,209,193
-482.5267,767.3105,-182.0517,211,204,188
-477.9136,766.942,-181.8833,203,194,179
-473.1384,766.2911,-181.6558,209,199,187
-468.3993,765.6868,-181.4383,202,193,177
-463.5995,764.9646,-181.1962,213,207,191
-458.8091,764.2419,-180.9543,188,181,165
-454.0144,763.4955,-180.7076,212,205,191
-449.3761,763.0075,-180.5151,222,216,202
-444.7182,762.4722,-180.3129,214,207,194
-440.1334,762.0544,-180.1354,219,213,199
-435.5155,761.5656,-179.9431,216,209,195
-430.9301,761.1237,-179.7608,212,205,191
-426.4407,760.8466,-179.613,226,219,205
-421.9051,760.4748,-179.4456,216,209,195
-417.4252,760.1972,-179.2979,198,192,176
-412.9127,759.8487,-179.1355,213,206,193
-408.4179,759.5236,-178.9781,209,203,189
-403.9403,759.2217,-178.8257,207,200,187
-399.4676,758.9199,-178.6734,228,221,207
-395.0475,758.7121,-178.5407,215,209,195
-390.6429,758.5278,-178.4129,212,205,194
-386.2654,758.3906,-178.295,213,205,194
-381.8795,758.2294,-178.1723,201,194,183
-377.5084,758.092,-178.0545,205,198,186
-373.1292,757.9307,-177.9318,214,207,196
-368.91,758.1,-177.8777,212,206,194
-364.5802,758.0331,-177.7747,218,211,200
-360.3293,758.1316,-177.7059,188,183,171
-356.0251,758.1118,-177.6127,215,208,197
-351.7979,758.2574,-177.5537,213,208,196
-347.5708,758.403,-177.4948,215,211,199
-343.3335,758.525,-177.4309,220,215,203
-339.1071,758.6707,-177.3719,213,208,196
-334.9115,758.8872,-177.3277,231,226,214
-330.6548,758.9617,-177.254,218,213,201
-326.449,759.1547,-177.2048,209,204,192
-322.2332,759.324,-177.1508,207,202,190
-317.988,759.4221,-177.0821,204,199,187
-313.7437,759.5202,-177.0134,213,208,196
-309.5001,759.6185,-176.9447,218,214,202
-305.304,759.835,-176.9004,204,199,187
-301.0705,759.9569,-176.8366,215,211,199
-296.8374,760.0786,-176.7728,202,197,185
-292.6319,760.2716,-176.7236,204,199,187
-288.4439,760.512,-176.6841,196,191,179
-284.2376,760.7049,-176.6349,212,208,196
-279.9274,760.6131,-176.5274,202,197,185
-275.7562,760.901,-176.4977,201,198,185
-271.4494,760.809,-176.3901,197,192,180
-267.377,761.3818,-176.4186,205,202,190
-263.0558,761.2422,-176.3015,198,195,182
-258.7057,761.0076,-176.1649,193,188,178
-253.9246,759.466,-175.7617,203,198,188
-248.6782,756.4504,-175.058,204,202,191
-244.346,756.1668,-174.9122,198,195,185
-238.5999,751.4137,-173.8553,203,200,189
-177.9436,592.3186,-141.2132,36,36,40
-173.6888,589.3835,-140.5459,39,38,43
-170.4645,589.8741,-140.5758,39,38,45
-166.6774,588.413,-140.209,37,36,41
-163.4892,589.0225,-140.2631,37,36,41
-160.5065,590.3942,-140.4718,39,38,43
-157.6402,592.2429,-140.777,38,37,44
-154.5412,593.2821,-140.9177,38,38,44
-151.495,594.5601,-141.1066,40,38,46
-148.3398,595.4573,-141.2182,41,40,47
-145.129,596.1641,-141.291,40,38,46
-141.8423,596.5849,-141.3058,40,39,44
-138.5126,596.8389,-141.2869,39,38,45
-135.1424,596.9261,-141.2341,40,39,46
-131.7782,597.037,-141.1862,43,41,49
-128.4036,597.1003,-141.1287,45,44,50
-125.0087,597.0681,-141.0519,45,44,49
-121.6155,597.0357,-140.9751,48,47,54
-118.2191,596.9796,-140.8936,49,48,55
-114.8245,596.9231,-140.812,46,46,54
-111.4653,597.034,-140.7642,49,48,55
-108.0969,597.0969,-140.7067,54,54,67
-104.7293,597.1599,-140.6493,48,58,78
-101.3493,597.1512,-140.5775,61,85,126
-97.98775,597.2379,-140.5248,57,74,107
-94.58113,597.0618,-140.4194,46,65,90
-91.23,597.1964,-140.3764,54,94,158
-87.8554,597.1873,-140.3046,59,126,244
-84.49741,597.2739,-140.2521,88,163,255
-81.14725,597.4084,-140.2091,89,176,255
-77.81119,597.6387,-140.1853,77,188,255
-74.46391,597.7972,-140.1471,45,177,255
-71.11641,597.9556,-140.1089,39,175,255
-67.75916,598.0422,-140.0564,26,158,255
-64.39931,598.1049,-139.999,18,172,255
-61.04023,598.1675,-139.9417,11,179,255
-57.71557,598.5177,-139.9418,0,135,255
-54.35914,598.6042,-139.8893,9,84,243
-51.01091,598.7628,-139.851,16,73,222
-47.69178,599.209,-139.8702,7,70,240
-44.32766,599.2238,-139.8033,19,69,234
-40.96477,599.2383,-139.7365,14,87,242
-37.60517,599.277,-139.6743,2,173,255
-34.23674,599.1954,-139.5884,57,234,255
-30.87418,599.1619,-139.512,50,245,255
-27.52875,599.3443,-139.4786,42,241,255
-24.1988,599.767,-139.4929,21,171,255
-20.84676,599.8775,-139.4452,28,147,253
-17.49633,600.012,-139.4022,23,124,233
-14.16558,600.5309,-139.4354,40,86,211
-10.80434,600.4733,-139.3544,36,87,250
-7.467724,600.9684,-139.3828,29,111,255
-4.116224,601.1511,-139.3493,34,124,255
-0.7679574,601.454,-139.3396,27,89,253
2.582623,601.7331,-139.3251,25,95,254
5.933168,602.0842,-139.3249,28,99,253
9.284763,602.5076,-139.3389,30,97,247
12.63952,602.9072,-139.3481,32,101,251
15.99764,603.1865,-139.3335,36,106,251
19.3572,603.4899,-139.3237,36,101,246
22.71975,604.0823,-139.3708,40,98,240
26.08463,604.4341,-139.3704,42,98,243
29.45203,604.8101,-139.3747,44,98,240
32.82235,605.2103,-139.3837,49,103,243
36.19711,605.6828,-139.4069,51,106,240
39.5667,605.8663,-139.3732,61,109,234
42.94012,606.1461,-139.3584,82,104,178
46.31693,606.4744,-139.3531,81,99,158
49.69566,606.8026,-139.3477,88,108,179
53.06554,606.9138,-139.2998,87,102,161
56.43783,607.0732,-139.2613,89,100,144
59.8017,607.0879,-139.1944,86,95,128
63.17842,607.3198,-139.1701,88,96,131
66.54769,607.431,-139.1221,98,106,144
69.89685,607.2765,-139.0222,87,88,96
73.24888,607.1943,-138.9364,88,87,96
76.5946,607.0639,-138.8413,90,89,98
79.94418,607.0058,-138.7603,90,89,98
83.30787,607.1166,-138.7124,90,90,97
86.67615,607.276,-138.674,91,90,98
90.01424,607.1452,-138.5789,90,90,97
93.34698,606.9901,-138.4791,94,92,100
96.67126,606.7864,-138.37,94,94,100
99.99794,606.631,-138.2704,95,94,101
103.3096,606.3788,-138.1519,94,92,100
106.5954,605.957,-138.0005,95,94,101
110.0291,606.6726,-138.0704,97,96,103
113.7666,609.5193,-138.5545,98,96,104
117.8645,614.6677,-139.485,98,97,104
154.8088,782.4965,-171.8252,225,220,215
159.3125,784.2903,-172.0856,217,213,207
163.1,781.77,-171.5099,231,227,222
167.208,781.2366,-171.3195,215,212,204
171.4789,781.6489,-171.3121,226,223,215
175.6805,781.6732,-171.2298,233,233,224
179.8209,781.3818,-171.0864,223,219,211
183.9661,781.139,-170.9525,225,221,213
188.1459,781.0901,-170.8562,228,225,218
192.3037,780.944,-170.7411,235,232,224
196.4532,780.7735,-170.6214,234,230,222
200.6462,780.8215,-170.5439,238,234,228
204.886,781.088,-170.5084,228,225,217
209.094,781.2088,-170.445,236,235,228
213.2848,781.2567,-170.3675,234,232,226
217.5086,781.4503,-170.3181,226,223,217
221.7617,781.7654,-170.292,225,222,214
226.0103,782.0565,-170.2613,221,218,210
230.2359,782.2502,-170.2118,226,222,217
234.5111,782.6385,-170.1997,239,235,227
238.7886,783.0269,-170.1876,238,235,229
243.0555,783.3668,-170.1661,240,237,229
247.337,783.7553,-170.1539,230,227,219
251.6074,784.0953,-170.1324,241,238,230
255.8728,784.411,-170.1062,218,212,205
260.1258,784.6781,-170.0706,229,225,217
264.4079,785.0426,-170.0537,239,236,228
268.6419,785.2367,-170.0042,244,241,233
272.8615,785.382,-169.9453,232,228,220
277.1031,785.6004,-169.9004,241,238,232
281.3152,785.7214,-169.8369,229,226,218
285.5268,785.8423,-169.7734,228,224,219
289.7766,786.0852,-169.7331,232,229,221
293.9799,786.1817,-169.6649,232,228,220
298.2465,786.4734,-169.634,232,229,221
302.4736,786.6431,-169.5797,236,233,225
306.7255,786.886,-169.5394,225,222,214
310.9615,787.0801,-169.4899,229,225,217
315.2315,787.3719,-169.4588,235,231,226
319.4857,787.6149,-169.4185,244,240,235
323.6532,787.6138,-169.3318,221,217,212
327.8722,787.7591,-169.273,223,219,214
332.2613,788.3686,-169.3022,226,223,217
336.4366,788.3918,-169.2201,227,224,218
340.8501,789.0505,-169.2585,232,229,223
345.0817,789.2205,-169.2042,224,220,214
349.2848,789.317,-169.136,215,214,208
353.2478,788.8019,-168.9523,216,215,211
356.0298,785.3261,-168.2089,187,182,178
358.1961,780.4052,-167.1932,122,116,107
358.2133,770.3177,-165.2029,114,105,92
357.0113,757.5088,-162.7012,106,100,91
356.5058,746.6781,-160.5751,52,55,62
357.3449,739.2963,-159.1015,40,48,56
359.5279,735.2427,-158.2566,61,64,70
362.4817,733.074,-157.7675,108,111,110
365.7113,731.5905,-157.4079,103,106,105
369.0648,730.425,-157.1084,91,93,95
372.5692,729.6267,-156.8783,90,92,96
376.1744,729.0732,-156.6943,109,109,111
379.94,728.8873,-156.5795,73,74,77
383.7134,728.7258,-156.4693,104,106,110
387.3355,728.2452,-156.2994,108,110,112
390.9051,727.6662,-156.1111,106,108,110
394.677,727.5287,-156.0057,108,111,112
398.3285,727.1456,-155.8544,110,110,112
402.034,726.8851,-155.7262,107,109,113
405.6993,726.5507,-155.5841,108,107,112
409.3719,726.2408,-155.4468,106,108,112
413.0399,725.9305,-155.3095,108,106,112
416.7527,725.7184,-155.1906,110,108,114
420.512,725.6046,-155.0902,116,114,120
424.42,725.7855,-155.0448,119,119,123
428.3027,725.9173,-154.9903,116,116,120
432.3394,726.3442,-154.9907,114,116,120
436.2881,726.5991,-154.9591,115,114,119
440.3818,727.1245,-154.9778,117,116,121
444.4394,727.5763,-154.9828,118,120,124
448.4867,728.0036,-154.9831,118,118,122
452.7386,728.8004,-155.052,115,117,121
456.8338,729.3018,-155.066,114,116,120
461.0421,730.0005,-155.1165,113,115,119
465.4494,731.0442,-155.231,112,113,120
469.642,731.694,-155.2722,116,117,123
473.5864,731.9006,-155.2311,110,111,118
477.9286,732.7971,-155.3179,107,109,115
481.9632,733.1517,-155.3041,108,110,116
486.4329,734.2462,-155.4273,106,108,112
490.14,734.0338,-155.3085,107,110,114
493.3737,733.032,-155.0438,104,106,110
498.6833,735.5084,-155.4221,134,136,138
-558.088,775.705,-180.8666,205,198,182
-548.0818,767.5954,-179.1028,203,195,180
-548.8823,775.2789,-180.5956,205,196,181
-543.171,773.4105,-180.1193,210,203,187
-539.2533,774.1947,-180.1895,198,191,175
-534.8781,774.2981,-180.1195,192,186,168
-529.0054,772.1226,-179.5808,203,196,180
-524.3674,771.8024,-179.424,206,200,184
-519.2178,770.683,-179.1032,199,193,177
-514.7753,770.6443,-179.0045,207,201,185
-509.6918,769.5947,-178.6984,200,194,178
-505.2737,769.5792,-178.6047,194,188,172
-500.2835,768.6463,-178.3229,210,203,187
-495.9177,768.701,-178.2438,208,202,186
-491.0756,767.9792,-178.0056,201,195,179
-486.5729,767.7983,-177.8784,212,206,190
-481.8033,767.17,-177.6597,211,204,188
-477.1832,766.7768,-177.4892,207,201,185
-472.373,766.0536,-177.2515,209,200,185
-467.7661,765.6599,-177.0812,207,198,183
-462.9727,764.9361,-176.8436,198,189,174
-458.2158,764.2591,-176.6158,201,194,179
-453.4407,763.5346,-176.3786,218,211,197
-448.795,763.0219,-176.1846,220,213,200
-444.2494,762.6738,-176.0244,204,197,183
-439.5908,762.1135,-175.821,220,213,200
-435.0048,761.6707,-175.6417,201,195,181
-430.4251,761.2276,-175.4625,196,189,173
-425.9413,760.9496,-175.317,204,197,183
-421.424,760.6005,-175.1571,210,203,188
-416.8995,760.2275,-174.9925,198,191,175
-412.4054,759.9016,-174.8376,214,208,192
-407.9657,759.67,-174.7019,206,199,186
-403.4326,759.2491,-174.5279,210,204,190
-398.978,758.9699,-174.3828,211,204,190
-394.5756,758.785,-174.2568,220,213,200
-390.1415,758.5289,-174.1165,211,203,192
-385.7468,758.3437,-173.9906,206,199,188
-381.3788,758.2056,-173.8744,206,199,186
-377.0141,758.0674,-173.7582,205,198,187
-372.6863,758,-173.6564,208,201,190
-368.3947,758.0036,-173.5689,211,203,192
-364.1269,758.0544,-173.491,206,201,187
-359.8055,757.9867,-173.3892,214,209,197
-355.5623,758.0847,-173.3209,214,209,197
-351.2984,758.1353,-173.243,212,206,193
-347.0782,758.2807,-173.1843,198,191,177
-342.8686,758.4496,-173.1303,199,194,182
-338.6797,758.666,-173.0858,208,203,191
-334.4495,758.7877,-173.0223,217,212,200
-330.25,758.9804,-172.9731,188,183,171
-326.0204,759.1019,-172.9096,205,200,188
-321.8011,759.2473,-172.8508,200,195,183
-317.582,759.3925,-172.7921,194,189,177
-313.3344,759.4667,-172.719,195,190,178
-309.1256,759.6356,-172.665,214,209,197
-304.9076,759.7808,-172.6063,198,193,181
-300.6805,759.9023,-172.5428,218,213,201
-296.4721,760.0712,-172.4889,198,193,181
-292.2367,760.1689,-172.4206,218,213,201
-288.0465,760.3853,-172.3761,206,201,189
-283.8558,760.6018,-172.3317,204,202,189
-279.5263,760.4381,-172.2112,209,204,192
-275.3962,760.8209,-172.2,195,190,178
-271.0707,760.657,-172.0796,203,198,186
-266.9722,761.135,-172.0873,199,197,184
-262.6829,761.0661,-171.9859,211,208,198
-258.3719,760.9258,-171.8704,201,198,188
-253.5972,759.3813,-171.4756,205,202,192
-248.3959,756.4798,-170.8113,223,219,209
-244.1463,756.4334,-170.7151,186,181,171
-238.4345,751.7681,-169.7013,211,206,196
-177.9441,593.0114,-137.9542,39,38,43
-173.7467,590.2625,-137.3398,38,36,42
-170.5367,590.8013,-137.3774,38,37,44
-166.7769,589.4332,-137.0373,38,36,44
-163.6017,590.0911,-137.0985,38,37,44
-160.5988,591.3932,-137.287,38,38,44
-157.739,593.2681,-137.5885,39,38,45
-154.6713,594.428,-137.7484,40,38,46
-151.6367,595.7554,-137.9411,40,39,46
-148.4804,596.6537,-138.0489,39,38,45
-145.2744,597.3853,-138.1236,39,38,45
-141.9513,597.6633,-138.1088,40,40,46
-138.6267,597.9415,-138.0939,40,39,46
-135.2839,598.148,-138.0649,40,38,46
-131.9239,598.2828,-138.0218,43,41,49
-128.5478,598.3461,-137.9646,46,45,51
-125.1828,598.457,-137.9169,44,43,46
